   6353.83691       0.00000000       95000.0000       9000.00000    
   6353.86426       5000.00000       95000.0000       9000.00000    
   6354.11475       10000.0000       95000.0000       9000.00000    
   6354.22607       15000.0000       95000.0000       9000.00000    
   6354.14062       20000.0000       95000.0000       9000.00000    
   6355.27686       25000.0000       95000.0000       9000.00000    
   6333.19678       30000.0000       95000.0000       9000.00000    
   6324.44238       35000.0000       95000.0000       9000.00000    
   6303.16699       40000.0000       95000.0000       9000.00000    
   6336.41650       45000.0000       95000.0000       9000.00000    
   6354.54248       50000.0000       95000.0000       9000.00000    
   6355.16992       55000.0000       95000.0000       9000.00000    
   6354.26611       60000.0000       95000.0000       9000.00000    
   6353.98047       65000.0000       95000.0000       9000.00000    
   6354.15381       70000.0000       95000.0000       9000.00000    
   6353.89648       75000.0000       95000.0000       9000.00000    
   6353.81836       80000.0000       95000.0000       9000.00000    
   6353.83838       85000.0000       95000.0000       9000.00000    
   6353.85254       90000.0000       95000.0000       9000.00000    
   6353.85254       95000.0000       95000.0000       9000.00000    
   6353.85254       100000.000       95000.0000       9000.00000    
   6353.85254       0.00000000       100000.000       9000.00000    
   6353.83740       5000.00000       100000.000       9000.00000    
   6353.86035       10000.0000       100000.000       9000.00000    
   6353.89941       15000.0000       100000.000       9000.00000    
   6353.88086       20000.0000       100000.000       9000.00000    
   6354.21289       25000.0000       100000.000       9000.00000    
   6352.46143       30000.0000       100000.000       9000.00000    
   6351.53857       35000.0000       100000.000       9000.00000    
   6348.89307       40000.0000       100000.000       9000.00000    
   6353.89355       45000.0000       100000.000       9000.00000    
   6354.82275       50000.0000       100000.000       9000.00000    
   6354.16064       55000.0000       100000.000       9000.00000    
   6353.97314       60000.0000       100000.000       9000.00000    
   6353.93896       65000.0000       100000.000       9000.00000    
   6353.87598       70000.0000       100000.000       9000.00000    
   6353.83447       75000.0000       100000.000       9000.00000    
   6353.84131       80000.0000       100000.000       9000.00000    
   6353.85254       85000.0000       100000.000       9000.00000    
   6353.85254       90000.0000       100000.000       9000.00000    
   6353.85254       95000.0000       100000.000       9000.00000    
   6353.85254       100000.000       100000.000       9000.00000    
   6353.85254       0.00000000       105000.000       9000.00000    
   6353.85010       5000.00000       105000.000       9000.00000    
   6353.84717       10000.0000       105000.000       9000.00000    
   6353.84521       15000.0000       105000.000       9000.00000    
   6353.83301       20000.0000       105000.000       9000.00000    
   6353.96143       25000.0000       105000.000       9000.00000    
   6354.25098       30000.0000       105000.000       9000.00000    
   6354.43799       35000.0000       105000.000       9000.00000    
   6354.19629       40000.0000       105000.000       9000.00000    
   6354.35547       45000.0000       105000.000       9000.00000    
   6354.04004       50000.0000       105000.000       9000.00000    
   6353.84521       55000.0000       105000.000       9000.00000    
   6353.83594       60000.0000       105000.000       9000.00000    
   6353.84814       65000.0000       105000.000       9000.00000    
   6353.84375       70000.0000       105000.000       9000.00000    
   6353.84668       75000.0000       105000.000       9000.00000    
   6353.85254       80000.0000       105000.000       9000.00000    
   6353.85254       85000.0000       105000.000       9000.00000    
   6353.85254       90000.0000       105000.000       9000.00000    
   6353.85254       95000.0000       105000.000       9000.00000    
   6353.85254       100000.000       105000.000       9000.00000    
   6353.85254       0.00000000       110000.000       9000.00000    
   6353.85254       5000.00000       110000.000       9000.00000    
   6353.85254       10000.0000       110000.000       9000.00000    
   6353.85107       15000.0000       110000.000       9000.00000    
   6353.84229       20000.0000       110000.000       9000.00000    
   6353.84961       25000.0000       110000.000       9000.00000    
   6353.93018       30000.0000       110000.000       9000.00000    
   6353.98828       35000.0000       110000.000       9000.00000    
   6353.97070       40000.0000       110000.000       9000.00000    
   6353.91748       45000.0000       110000.000       9000.00000    
   6353.84912       50000.0000       110000.000       9000.00000    
   6353.83545       55000.0000       110000.000       9000.00000    
   6353.84521       60000.0000       110000.000       9000.00000    
   6353.84912       65000.0000       110000.000       9000.00000    
   6353.85010       70000.0000       110000.000       9000.00000    
   6353.85254       75000.0000       110000.000       9000.00000    
   6353.85254       80000.0000       110000.000       9000.00000    
   6353.85254       85000.0000       110000.000       9000.00000    
   6353.85254       90000.0000       110000.000       9000.00000    
   6353.85254       95000.0000       110000.000       9000.00000    
   6353.85254       100000.000       110000.000       9000.00000    
   6353.85254       0.00000000       115000.000       9000.00000    
   6353.85254       5000.00000       115000.000       9000.00000    
   6353.85254       10000.0000       115000.000       9000.00000    
   6353.85254       15000.0000       115000.000       9000.00000    
   6353.85107       20000.0000       115000.000       9000.00000    
   6353.84814       25000.0000       115000.000       9000.00000    
   6353.85156       30000.0000       115000.000       9000.00000    
   6353.85693       35000.0000       115000.000       9000.00000    
   6353.85840       40000.0000       115000.000       9000.00000    
   6353.84961       45000.0000       115000.000       9000.00000    
   6353.84570       50000.0000       115000.000       9000.00000    
   6353.85010       55000.0000       115000.000       9000.00000    
   6353.85254       60000.0000       115000.000       9000.00000    
   6353.85254       65000.0000       115000.000       9000.00000    
   6353.85254       70000.0000       115000.000       9000.00000    
   6353.85254       75000.0000       115000.000       9000.00000    
   6353.85254       80000.0000       115000.000       9000.00000    
   6353.85254       85000.0000       115000.000       9000.00000    
   6353.85254       90000.0000       115000.000       9000.00000    
   6353.85254       95000.0000       115000.000       9000.00000    
   6353.85254       100000.000       115000.000       9000.00000    
   6353.85254       0.00000000       120000.000       9000.00000    
   6353.85254       5000.00000       120000.000       9000.00000    
   6353.85254       10000.0000       120000.000       9000.00000    
   6353.85254       15000.0000       120000.000       9000.00000    
   6353.85254       20000.0000       120000.000       9000.00000    
   6353.85254       25000.0000       120000.000       9000.00000    
   6353.85205       30000.0000       120000.000       9000.00000    
   6353.84961       35000.0000       120000.000       9000.00000    
   6353.85010       40000.0000       120000.000       9000.00000    
   6353.85254       45000.0000       120000.000       9000.00000    
   6353.85254       50000.0000       120000.000       9000.00000    
   6353.85254       55000.0000       120000.000       9000.00000    
   6353.85254       60000.0000       120000.000       9000.00000    
   6353.85254       65000.0000       120000.000       9000.00000    
   6353.85254       70000.0000       120000.000       9000.00000    
   6353.85254       75000.0000       120000.000       9000.00000    
   6353.85254       80000.0000       120000.000       9000.00000    
   6353.85254       85000.0000       120000.000       9000.00000    
   6353.85254       90000.0000       120000.000       9000.00000    
   6353.85254       95000.0000       120000.000       9000.00000    
   6353.85254       100000.000       120000.000       9000.00000    
   6400.44141       0.00000000       0.00000000       10000.0000    
   6400.44141       5000.00000       0.00000000       10000.0000    
   6400.44141       10000.0000       0.00000000       10000.0000    
   6400.44141       15000.0000       0.00000000       10000.0000    
   6400.44141       20000.0000       0.00000000       10000.0000    
   6400.44141       25000.0000       0.00000000       10000.0000    
   6400.44141       30000.0000       0.00000000       10000.0000    
   6400.43652       35000.0000       0.00000000       10000.0000    
   6400.43652       40000.0000       0.00000000       10000.0000    
   6400.43506       45000.0000       0.00000000       10000.0000    
   6400.43994       50000.0000       0.00000000       10000.0000    
   6400.44189       55000.0000       0.00000000       10000.0000    
   6400.44238       60000.0000       0.00000000       10000.0000    
   6400.44141       65000.0000       0.00000000       10000.0000    
   6400.44141       70000.0000       0.00000000       10000.0000    
   6400.44141       75000.0000       0.00000000       10000.0000    
   6400.44141       80000.0000       0.00000000       10000.0000    
   6400.44141       85000.0000       0.00000000       10000.0000    
   6400.44141       90000.0000       0.00000000       10000.0000    
   6400.44141       95000.0000       0.00000000       10000.0000    
   6400.44141       100000.000       0.00000000       10000.0000    
   6400.44141       0.00000000       5000.00000       10000.0000    
   6400.44141       5000.00000       5000.00000       10000.0000    
   6400.44141       10000.0000       5000.00000       10000.0000    
   6400.44141       15000.0000       5000.00000       10000.0000    
   6400.44141       20000.0000       5000.00000       10000.0000    
   6400.43750       25000.0000       5000.00000       10000.0000    
   6400.43115       30000.0000       5000.00000       10000.0000    
   6400.43213       35000.0000       5000.00000       10000.0000    
   6400.44043       40000.0000       5000.00000       10000.0000    
   6400.40967       45000.0000       5000.00000       10000.0000    
   6400.40527       50000.0000       5000.00000       10000.0000    
   6400.41602       55000.0000       5000.00000       10000.0000    
   6400.42920       60000.0000       5000.00000       10000.0000    
   6400.43750       65000.0000       5000.00000       10000.0000    
   6400.44141       70000.0000       5000.00000       10000.0000    
   6400.44141       75000.0000       5000.00000       10000.0000    
   6400.44141       80000.0000       5000.00000       10000.0000    
   6400.44141       85000.0000       5000.00000       10000.0000    
   6400.44141       90000.0000       5000.00000       10000.0000    
   6400.44141       95000.0000       5000.00000       10000.0000    
   6400.44141       100000.000       5000.00000       10000.0000    
   6400.44141       0.00000000       10000.0000       10000.0000    
   6400.44141       5000.00000       10000.0000       10000.0000    
   6400.44141       10000.0000       10000.0000       10000.0000    
   6400.44141       15000.0000       10000.0000       10000.0000    
   6400.43750       20000.0000       10000.0000       10000.0000    
   6400.42676       25000.0000       10000.0000       10000.0000    
   6400.43408       30000.0000       10000.0000       10000.0000    
   6400.54004       35000.0000       10000.0000       10000.0000    
   6400.64160       40000.0000       10000.0000       10000.0000    
   6400.53711       45000.0000       10000.0000       10000.0000    
   6400.41748       50000.0000       10000.0000       10000.0000    
   6400.37793       55000.0000       10000.0000       10000.0000    
   6400.39014       60000.0000       10000.0000       10000.0000    
   6400.41699       65000.0000       10000.0000       10000.0000    
   6400.43164       70000.0000       10000.0000       10000.0000    
   6400.44141       75000.0000       10000.0000       10000.0000    
   6400.44141       80000.0000       10000.0000       10000.0000    
   6400.44141       85000.0000       10000.0000       10000.0000    
   6400.44141       90000.0000       10000.0000       10000.0000    
   6400.44141       95000.0000       10000.0000       10000.0000    
   6400.44141       100000.000       10000.0000       10000.0000    
   6400.44141       0.00000000       15000.0000       10000.0000    
   6400.44141       5000.00000       15000.0000       10000.0000    
   6400.44141       10000.0000       15000.0000       10000.0000    
   6400.43994       15000.0000       15000.0000       10000.0000    
   6400.42822       20000.0000       15000.0000       10000.0000    
   6400.43848       25000.0000       15000.0000       10000.0000    
   6400.66260       30000.0000       15000.0000       10000.0000    
   6401.12500       35000.0000       15000.0000       10000.0000    
   6401.11670       40000.0000       15000.0000       10000.0000    
   6401.70850       45000.0000       15000.0000       10000.0000    
   6401.16260       50000.0000       15000.0000       10000.0000    
   6400.72168       55000.0000       15000.0000       10000.0000    
   6400.48438       60000.0000       15000.0000       10000.0000    
   6400.42969       65000.0000       15000.0000       10000.0000    
   6400.41602       70000.0000       15000.0000       10000.0000    
   6400.42334       75000.0000       15000.0000       10000.0000    
   6400.43457       80000.0000       15000.0000       10000.0000    
   6400.44141       85000.0000       15000.0000       10000.0000    
   6400.44141       90000.0000       15000.0000       10000.0000    
   6400.44141       95000.0000       15000.0000       10000.0000    
   6400.44141       100000.000       15000.0000       10000.0000    
   6400.44141       0.00000000       20000.0000       10000.0000    
   6400.44141       5000.00000       20000.0000       10000.0000    
   6400.44141       10000.0000       20000.0000       10000.0000    
   6400.43359       15000.0000       20000.0000       10000.0000    
   6400.43311       20000.0000       20000.0000       10000.0000    
   6400.62305       25000.0000       20000.0000       10000.0000    
   6401.29248       30000.0000       20000.0000       10000.0000    
   6399.52686       35000.0000       20000.0000       10000.0000    
   6392.81641       40000.0000       20000.0000       10000.0000    
   6402.87988       45000.0000       20000.0000       10000.0000    
   6402.87988       50000.0000       20000.0000       10000.0000    
   6402.67236       55000.0000       20000.0000       10000.0000    
   6401.47852       60000.0000       20000.0000       10000.0000    
   6400.82861       65000.0000       20000.0000       10000.0000    
   6400.56104       70000.0000       20000.0000       10000.0000    
   6400.42920       75000.0000       20000.0000       10000.0000    
   6400.42383       80000.0000       20000.0000       10000.0000    
   6400.43457       85000.0000       20000.0000       10000.0000    
   6400.44141       90000.0000       20000.0000       10000.0000    
   6400.44141       95000.0000       20000.0000       10000.0000    
   6400.44141       100000.000       20000.0000       10000.0000    
   6400.44141       0.00000000       25000.0000       10000.0000    
   6400.44141       5000.00000       25000.0000       10000.0000    
   6400.43994       10000.0000       25000.0000       10000.0000    
   6400.43066       15000.0000       25000.0000       10000.0000    
   6400.48877       20000.0000       25000.0000       10000.0000    
   6400.96533       25000.0000       25000.0000       10000.0000    
   6400.13232       30000.0000       25000.0000       10000.0000    
   6376.58838       35000.0000       25000.0000       10000.0000    
   6326.03564       40000.0000       25000.0000       10000.0000    
   6385.45020       45000.0000       25000.0000       10000.0000    
   6390.43945       50000.0000       25000.0000       10000.0000    
   6403.33740       55000.0000       25000.0000       10000.0000    
   6402.42578       60000.0000       25000.0000       10000.0000    
   6400.83252       65000.0000       25000.0000       10000.0000    
   6401.14014       70000.0000       25000.0000       10000.0000    
   6400.61572       75000.0000       25000.0000       10000.0000    
   6400.43457       80000.0000       25000.0000       10000.0000    
   6400.43115       85000.0000       25000.0000       10000.0000    
   6400.44141       90000.0000       25000.0000       10000.0000    
   6400.44141       95000.0000       25000.0000       10000.0000    
   6400.44141       100000.000       25000.0000       10000.0000    
   6400.44141       0.00000000       30000.0000       10000.0000    
   6400.44141       5000.00000       30000.0000       10000.0000    
   6400.43896       10000.0000       30000.0000       10000.0000    
   6400.43506       15000.0000       30000.0000       10000.0000    
   6400.56982       20000.0000       30000.0000       10000.0000    
   6401.38525       25000.0000       30000.0000       10000.0000    
   6399.32959       30000.0000       30000.0000       10000.0000    
   6355.55566       35000.0000       30000.0000       10000.0000    
   6247.08887       40000.0000       30000.0000       10000.0000    
   6367.03418       45000.0000       30000.0000       10000.0000    
   6324.56494       50000.0000       30000.0000       10000.0000    
   6380.92773       55000.0000       30000.0000       10000.0000    
   6386.62549       60000.0000       30000.0000       10000.0000    
   6388.60303       65000.0000       30000.0000       10000.0000    
   6400.39062       70000.0000       30000.0000       10000.0000    
   6400.97656       75000.0000       30000.0000       10000.0000    
   6400.52539       80000.0000       30000.0000       10000.0000    
   6400.43457       85000.0000       30000.0000       10000.0000    
   6400.43848       90000.0000       30000.0000       10000.0000    
   6400.44141       95000.0000       30000.0000       10000.0000    
   6400.44141       100000.000       30000.0000       10000.0000    
   6400.44141       0.00000000       35000.0000       10000.0000    
   6400.44141       5000.00000       35000.0000       10000.0000    
   6400.44238       10000.0000       35000.0000       10000.0000    
   6400.44238       15000.0000       35000.0000       10000.0000    
   6400.56934       20000.0000       35000.0000       10000.0000    
   6401.38184       25000.0000       35000.0000       10000.0000    
   6399.28271       30000.0000       35000.0000       10000.0000    
   6357.95703       35000.0000       35000.0000       10000.0000    
   6277.81006       40000.0000       35000.0000       10000.0000    
   6442.06445       45000.0000       35000.0000       10000.0000    
   6248.71289       50000.0000       35000.0000       10000.0000    
   6314.24414       55000.0000       35000.0000       10000.0000    
   6329.05078       60000.0000       35000.0000       10000.0000    
   6358.93066       65000.0000       35000.0000       10000.0000    
   6396.64307       70000.0000       35000.0000       10000.0000    
   6400.90039       75000.0000       35000.0000       10000.0000    
   6400.58203       80000.0000       35000.0000       10000.0000    
   6400.44482       85000.0000       35000.0000       10000.0000    
   6400.43896       90000.0000       35000.0000       10000.0000    
   6400.44141       95000.0000       35000.0000       10000.0000    
   6400.44141       100000.000       35000.0000       10000.0000    
   6400.44141       0.00000000       40000.0000       10000.0000    
   6400.44531       5000.00000       40000.0000       10000.0000    
   6400.44727       10000.0000       40000.0000       10000.0000    
   6400.41406       15000.0000       40000.0000       10000.0000    
   6400.33643       20000.0000       40000.0000       10000.0000    
   6400.54639       25000.0000       40000.0000       10000.0000    
   6396.71387       30000.0000       40000.0000       10000.0000    
   6358.26074       35000.0000       40000.0000       10000.0000    
   6398.27734       40000.0000       40000.0000       10000.0000    
   6496.97559       45000.0000       40000.0000       10000.0000    
   6213.57227       50000.0000       40000.0000       10000.0000    
   6272.22070       55000.0000       40000.0000       10000.0000    
   6354.03662       60000.0000       40000.0000       10000.0000    
   6395.18848       65000.0000       40000.0000       10000.0000    
   6402.11816       70000.0000       40000.0000       10000.0000    
   6401.07666       75000.0000       40000.0000       10000.0000    
   6400.50684       80000.0000       40000.0000       10000.0000    
   6400.43066       85000.0000       40000.0000       10000.0000    
   6400.43896       90000.0000       40000.0000       10000.0000    
   6400.44141       95000.0000       40000.0000       10000.0000    
   6400.44141       100000.000       40000.0000       10000.0000    
   6400.44141       0.00000000       45000.0000       10000.0000    
   6400.44824       5000.00000       45000.0000       10000.0000    
   6400.43604       10000.0000       45000.0000       10000.0000    
   6400.26758       15000.0000       45000.0000       10000.0000    
   6399.96094       20000.0000       45000.0000       10000.0000    
   6401.00830       25000.0000       45000.0000       10000.0000    
   6400.92188       30000.0000       45000.0000       10000.0000    
   6379.07373       35000.0000       45000.0000       10000.0000    
   6571.60742       40000.0000       45000.0000       10000.0000    
   6779.42480       45000.0000       45000.0000       10000.0000    
   6304.83057       50000.0000       45000.0000       10000.0000    
   6267.81104       55000.0000       45000.0000       10000.0000    
   6320.99854       60000.0000       45000.0000       10000.0000    
   6391.40381       65000.0000       45000.0000       10000.0000    
   6401.44482       70000.0000       45000.0000       10000.0000    
   6401.07422       75000.0000       45000.0000       10000.0000    
   6400.51416       80000.0000       45000.0000       10000.0000    
   6400.42139       85000.0000       45000.0000       10000.0000    
   6400.43408       90000.0000       45000.0000       10000.0000    
   6400.44141       95000.0000       45000.0000       10000.0000    
   6400.44141       100000.000       45000.0000       10000.0000    
   6400.44287       0.00000000       50000.0000       10000.0000    
   6400.44287       5000.00000       50000.0000       10000.0000    
   6400.36572       10000.0000       50000.0000       10000.0000    
   6399.97510       15000.0000       50000.0000       10000.0000    
   6399.99658       20000.0000       50000.0000       10000.0000    
   6404.74219       25000.0000       50000.0000       10000.0000    
   6411.64551       30000.0000       50000.0000       10000.0000    
   6362.06445       35000.0000       50000.0000       10000.0000    
   6479.79883       40000.0000       50000.0000       10000.0000    
   6896.59131       45000.0000       50000.0000       10000.0000    
   6476.27686       50000.0000       50000.0000       10000.0000    
   6289.95166       55000.0000       50000.0000       10000.0000    
   6316.11328       60000.0000       50000.0000       10000.0000    
   6383.81787       65000.0000       50000.0000       10000.0000    
   6401.14893       70000.0000       50000.0000       10000.0000    
   6401.63721       75000.0000       50000.0000       10000.0000    
   6400.64551       80000.0000       50000.0000       10000.0000    
   6400.39697       85000.0000       50000.0000       10000.0000    
   6400.41797       90000.0000       50000.0000       10000.0000    
   6400.43994       95000.0000       50000.0000       10000.0000    
   6400.44141       100000.000       50000.0000       10000.0000    
   6400.43994       0.00000000       55000.0000       10000.0000    
   6400.44043       5000.00000       55000.0000       10000.0000    
   6400.34521       10000.0000       55000.0000       10000.0000    
   6400.14551       15000.0000       55000.0000       10000.0000    
   6403.09326       20000.0000       55000.0000       10000.0000    
   6411.00439       25000.0000       55000.0000       10000.0000    
   6425.86133       30000.0000       55000.0000       10000.0000    
   6344.62012       35000.0000       55000.0000       10000.0000    
   6380.40625       40000.0000       55000.0000       10000.0000    
   6392.85547       45000.0000       55000.0000       10000.0000    
   6231.02441       50000.0000       55000.0000       10000.0000    
   6243.72266       55000.0000       55000.0000       10000.0000    
   6313.97754       60000.0000       55000.0000       10000.0000    
   6375.74561       65000.0000       55000.0000       10000.0000    
   6399.60010       70000.0000       55000.0000       10000.0000    
   6403.06152       75000.0000       55000.0000       10000.0000    
   6401.53369       80000.0000       55000.0000       10000.0000    
   6400.52783       85000.0000       55000.0000       10000.0000    
   6400.39795       90000.0000       55000.0000       10000.0000    
   6400.42773       95000.0000       55000.0000       10000.0000    
   6400.44141       100000.000       55000.0000       10000.0000    
   6400.43604       0.00000000       60000.0000       10000.0000    
   6400.60059       5000.00000       60000.0000       10000.0000    
   6400.84521       10000.0000       60000.0000       10000.0000    
   6402.16699       15000.0000       60000.0000       10000.0000    
   6418.13281       20000.0000       60000.0000       10000.0000    
   6423.52637       25000.0000       60000.0000       10000.0000    
   6436.02197       30000.0000       60000.0000       10000.0000    
   6309.34717       35000.0000       60000.0000       10000.0000    
   6524.44727       40000.0000       60000.0000       10000.0000    
   6400.58447       45000.0000       60000.0000       10000.0000    
   6284.67676       50000.0000       60000.0000       10000.0000    
   6323.14014       55000.0000       60000.0000       10000.0000    
   6229.92529       60000.0000       60000.0000       10000.0000    
   6305.15625       65000.0000       60000.0000       10000.0000    
   6366.50146       70000.0000       60000.0000       10000.0000    
   6395.30566       75000.0000       60000.0000       10000.0000    
   6402.97168       80000.0000       60000.0000       10000.0000    
   6401.23291       85000.0000       60000.0000       10000.0000    
   6400.47412       90000.0000       60000.0000       10000.0000    
   6400.41846       95000.0000       60000.0000       10000.0000    
   6400.43848       100000.000       60000.0000       10000.0000    
   6400.53369       0.00000000       65000.0000       10000.0000    
   6400.98682       5000.00000       65000.0000       10000.0000    
   6399.79639       10000.0000       65000.0000       10000.0000    
   6392.43848       15000.0000       65000.0000       10000.0000    
   6420.89160       20000.0000       65000.0000       10000.0000    
   6421.39062       25000.0000       65000.0000       10000.0000    
   6360.83008       30000.0000       65000.0000       10000.0000    
   6007.02490       35000.0000       65000.0000       10000.0000    
   6319.00488       40000.0000       65000.0000       10000.0000    
   6253.21533       45000.0000       65000.0000       10000.0000    
   6515.59668       50000.0000       65000.0000       10000.0000    
   6606.32520       55000.0000       65000.0000       10000.0000    
   6427.97754       60000.0000       65000.0000       10000.0000    
   6398.88281       65000.0000       65000.0000       10000.0000    
   6304.73926       70000.0000       65000.0000       10000.0000    
   6335.37012       75000.0000       65000.0000       10000.0000    
   6397.18066       80000.0000       65000.0000       10000.0000    
   6401.91504       85000.0000       65000.0000       10000.0000    
   6400.70068       90000.0000       65000.0000       10000.0000    
   6400.43506       95000.0000       65000.0000       10000.0000    
   6400.43408       100000.000       65000.0000       10000.0000    
   6400.78027       0.00000000       70000.0000       10000.0000    
   6400.14795       5000.00000       70000.0000       10000.0000    
   6385.43848       10000.0000       70000.0000       10000.0000    
   6314.20215       15000.0000       70000.0000       10000.0000    
   6360.78711       20000.0000       70000.0000       10000.0000    
   6275.34766       25000.0000       70000.0000       10000.0000    
   6118.07910       30000.0000       70000.0000       10000.0000    
   6160.54297       35000.0000       70000.0000       10000.0000    
   6402.33984       40000.0000       70000.0000       10000.0000    
   6385.91455       45000.0000       70000.0000       10000.0000    
   6424.51953       50000.0000       70000.0000       10000.0000    
   6349.58105       55000.0000       70000.0000       10000.0000    
   6403.04688       60000.0000       70000.0000       10000.0000    
   6622.11426       65000.0000       70000.0000       10000.0000    
   6148.76953       70000.0000       70000.0000       10000.0000    
   6261.42432       75000.0000       70000.0000       10000.0000    
   6388.16943       80000.0000       70000.0000       10000.0000    
   6401.76514       85000.0000       70000.0000       10000.0000    
   6400.81494       90000.0000       70000.0000       10000.0000    
   6400.45264       95000.0000       70000.0000       10000.0000    
   6400.43408       100000.000       70000.0000       10000.0000    
   6400.70654       0.00000000       75000.0000       10000.0000    
   6401.34375       5000.00000       75000.0000       10000.0000    
   6394.97412       10000.0000       75000.0000       10000.0000    
   6354.20215       15000.0000       75000.0000       10000.0000    
   6281.99121       20000.0000       75000.0000       10000.0000    
   6195.46973       25000.0000       75000.0000       10000.0000    
   6317.67822       30000.0000       75000.0000       10000.0000    
   6548.03223       35000.0000       75000.0000       10000.0000    
   6334.24609       40000.0000       75000.0000       10000.0000    
   6447.69775       45000.0000       75000.0000       10000.0000    
   6374.88916       50000.0000       75000.0000       10000.0000    
   6298.42432       55000.0000       75000.0000       10000.0000    
   6183.50146       60000.0000       75000.0000       10000.0000    
   6563.84912       65000.0000       75000.0000       10000.0000    
   6236.23291       70000.0000       75000.0000       10000.0000    
   6330.16650       75000.0000       75000.0000       10000.0000    
   6396.79980       80000.0000       75000.0000       10000.0000    
   6401.71240       85000.0000       75000.0000       10000.0000    
   6400.66113       90000.0000       75000.0000       10000.0000    
   6400.43604       95000.0000       75000.0000       10000.0000    
   6400.43457       100000.000       75000.0000       10000.0000    
   6400.50488       0.00000000       80000.0000       10000.0000    
   6401.77393       5000.00000       80000.0000       10000.0000    
   6401.88379       10000.0000       80000.0000       10000.0000    
   6375.93848       15000.0000       80000.0000       10000.0000    
   6281.50439       20000.0000       80000.0000       10000.0000    
   6284.61230       25000.0000       80000.0000       10000.0000    
   6316.72168       30000.0000       80000.0000       10000.0000    
   6214.08203       35000.0000       80000.0000       10000.0000    
   6237.20605       40000.0000       80000.0000       10000.0000    
   6424.50146       45000.0000       80000.0000       10000.0000    
   6472.63672       50000.0000       80000.0000       10000.0000    
   6392.97412       55000.0000       80000.0000       10000.0000    
   6289.51709       60000.0000       80000.0000       10000.0000    
   6365.20068       65000.0000       80000.0000       10000.0000    
   6365.86426       70000.0000       80000.0000       10000.0000    
   6394.15234       75000.0000       80000.0000       10000.0000    
   6402.45801       80000.0000       80000.0000       10000.0000    
   6401.10840       85000.0000       80000.0000       10000.0000    
   6400.47461       90000.0000       80000.0000       10000.0000    
   6400.42529       95000.0000       80000.0000       10000.0000    
   6400.44043       100000.000       80000.0000       10000.0000    
   6400.42090       0.00000000       85000.0000       10000.0000    
   6400.99561       5000.00000       85000.0000       10000.0000    
   6401.56104       10000.0000       85000.0000       10000.0000    
   6390.33789       15000.0000       85000.0000       10000.0000    
   6357.68311       20000.0000       85000.0000       10000.0000    
   6406.23291       25000.0000       85000.0000       10000.0000    
   6363.00049       30000.0000       85000.0000       10000.0000    
   6368.80957       35000.0000       85000.0000       10000.0000    
   6457.11230       40000.0000       85000.0000       10000.0000    
   6305.47461       45000.0000       85000.0000       10000.0000    
   6426.58691       50000.0000       85000.0000       10000.0000    
   6389.84375       55000.0000       85000.0000       10000.0000    
   6349.37061       60000.0000       85000.0000       10000.0000    
   6341.82959       65000.0000       85000.0000       10000.0000    
   6389.25879       70000.0000       85000.0000       10000.0000    
   6401.83789       75000.0000       85000.0000       10000.0000    
   6401.46875       80000.0000       85000.0000       10000.0000    
   6400.56104       85000.0000       85000.0000       10000.0000    
   6400.41602       90000.0000       85000.0000       10000.0000    
   6400.43213       95000.0000       85000.0000       10000.0000    
   6400.44141       100000.000       85000.0000       10000.0000    
   6400.41504       0.00000000       90000.0000       10000.0000    
   6400.54980       5000.00000       90000.0000       10000.0000    
   6401.13916       10000.0000       90000.0000       10000.0000    
   6400.72656       15000.0000       90000.0000       10000.0000    
   6397.55908       20000.0000       90000.0000       10000.0000    
   6406.26953       25000.0000       90000.0000       10000.0000    
   6379.23779       30000.0000       90000.0000       10000.0000    
   6350.50146       35000.0000       90000.0000       10000.0000    
   6330.89893       40000.0000       90000.0000       10000.0000    
   6270.40234       45000.0000       90000.0000       10000.0000    
   6362.27832       50000.0000       90000.0000       10000.0000    
   6394.39844       55000.0000       90000.0000       10000.0000    
   6395.96191       60000.0000       90000.0000       10000.0000    
   6394.21289       65000.0000       90000.0000       10000.0000    
   6401.00635       70000.0000       90000.0000       10000.0000    
   6401.42578       75000.0000       90000.0000       10000.0000    
   6400.63672       80000.0000       90000.0000       10000.0000    
   6400.41846       85000.0000       90000.0000       10000.0000    
   6400.42627       90000.0000       90000.0000       10000.0000    
   6400.44043       95000.0000       90000.0000       10000.0000    
   6400.44141       100000.000       90000.0000       10000.0000    
   6400.43311       0.00000000       95000.0000       10000.0000    
   6400.42676       5000.00000       95000.0000       10000.0000    
   6400.56104       10000.0000       95000.0000       10000.0000    
   6400.82764       15000.0000       95000.0000       10000.0000    
   6400.75537       20000.0000       95000.0000       10000.0000    
   6400.94775       25000.0000       95000.0000       10000.0000    
   6391.69434       30000.0000       95000.0000       10000.0000    
   6387.72070       35000.0000       95000.0000       10000.0000    
   6375.67139       40000.0000       95000.0000       10000.0000    
   6377.68115       45000.0000       95000.0000       10000.0000    
   6396.44434       50000.0000       95000.0000       10000.0000    
   6401.26025       55000.0000       95000.0000       10000.0000    
   6401.42285       60000.0000       95000.0000       10000.0000    
   6400.95410       65000.0000       95000.0000       10000.0000    
   6401.02686       70000.0000       95000.0000       10000.0000    
   6400.61377       75000.0000       95000.0000       10000.0000    
   6400.42871       80000.0000       95000.0000       10000.0000    
   6400.42334       85000.0000       95000.0000       10000.0000    
   6400.43750       90000.0000       95000.0000       10000.0000    
   6400.44141       95000.0000       95000.0000       10000.0000    
   6400.44141       100000.000       95000.0000       10000.0000    
   6400.44141       0.00000000       100000.000       10000.0000    
   6400.42969       5000.00000       100000.000       10000.0000    
   6400.43506       10000.0000       100000.000       10000.0000    
   6400.48828       15000.0000       100000.000       10000.0000    
   6400.53613       20000.0000       100000.000       10000.0000    
   6400.69629       25000.0000       100000.000       10000.0000    
   6400.29346       30000.0000       100000.000       10000.0000    
   6400.71143       35000.0000       100000.000       10000.0000    
   6399.38232       40000.0000       100000.000       10000.0000    
   6400.31201       45000.0000       100000.000       10000.0000    
   6401.35303       50000.0000       100000.000       10000.0000    
   6400.95215       55000.0000       100000.000       10000.0000    
   6400.70557       60000.0000       100000.000       10000.0000    
   6400.61133       65000.0000       100000.000       10000.0000    
   6400.51221       70000.0000       100000.000       10000.0000    
   6400.43213       75000.0000       100000.000       10000.0000    
   6400.42676       80000.0000       100000.000       10000.0000    
   6400.43750       85000.0000       100000.000       10000.0000    
   6400.44141       90000.0000       100000.000       10000.0000    
   6400.44141       95000.0000       100000.000       10000.0000    
   6400.44141       100000.000       100000.000       10000.0000    
   6400.44141       0.00000000       105000.000       10000.0000    
   6400.44141       5000.00000       105000.000       10000.0000    
   6400.43652       10000.0000       105000.000       10000.0000    
   6400.43652       15000.0000       105000.000       10000.0000    
   6400.43848       20000.0000       105000.000       10000.0000    
   6400.49121       25000.0000       105000.000       10000.0000    
   6400.66553       30000.0000       105000.000       10000.0000    
   6400.91064       35000.0000       105000.000       10000.0000    
   6400.88965       40000.0000       105000.000       10000.0000    
   6400.90088       45000.0000       105000.000       10000.0000    
   6400.68994       50000.0000       105000.000       10000.0000    
   6400.48584       55000.0000       105000.000       10000.0000    
   6400.43994       60000.0000       105000.000       10000.0000    
   6400.44189       65000.0000       105000.000       10000.0000    
   6400.43359       70000.0000       105000.000       10000.0000    
   6400.43359       75000.0000       105000.000       10000.0000    
   6400.43896       80000.0000       105000.000       10000.0000    
   6400.44141       85000.0000       105000.000       10000.0000    
   6400.44141       90000.0000       105000.000       10000.0000    
   6400.44141       95000.0000       105000.000       10000.0000    
   6400.44141       100000.000       105000.000       10000.0000    
   6400.44141       0.00000000       110000.000       10000.0000    
   6400.44141       5000.00000       110000.000       10000.0000    
   6400.44141       10000.0000       110000.000       10000.0000    
   6400.44141       15000.0000       110000.000       10000.0000    
   6400.43701       20000.0000       110000.000       10000.0000    
   6400.43457       25000.0000       110000.000       10000.0000    
   6400.46387       30000.0000       110000.000       10000.0000    
   6400.49902       35000.0000       110000.000       10000.0000    
   6400.51221       40000.0000       110000.000       10000.0000    
   6400.49414       45000.0000       110000.000       10000.0000    
   6400.44727       50000.0000       110000.000       10000.0000    
   6400.42871       55000.0000       110000.000       10000.0000    
   6400.43213       60000.0000       110000.000       10000.0000    
   6400.43750       65000.0000       110000.000       10000.0000    
   6400.43896       70000.0000       110000.000       10000.0000    
   6400.44141       75000.0000       110000.000       10000.0000    
   6400.44141       80000.0000       110000.000       10000.0000    
   6400.44141       85000.0000       110000.000       10000.0000    
   6400.44141       90000.0000       110000.000       10000.0000    
   6400.44141       95000.0000       110000.000       10000.0000    
   6400.44141       100000.000       110000.000       10000.0000    
   6400.44141       0.00000000       115000.000       10000.0000    
   6400.44141       5000.00000       115000.000       10000.0000    
   6400.44141       10000.0000       115000.000       10000.0000    
   6400.44141       15000.0000       115000.000       10000.0000    
   6400.44141       20000.0000       115000.000       10000.0000    
   6400.43896       25000.0000       115000.000       10000.0000    
   6400.43750       30000.0000       115000.000       10000.0000    
   6400.43750       35000.0000       115000.000       10000.0000    
   6400.43994       40000.0000       115000.000       10000.0000    
   6400.43848       45000.0000       115000.000       10000.0000    
   6400.43506       50000.0000       115000.000       10000.0000    
   6400.43896       55000.0000       115000.000       10000.0000    
   6400.44141       60000.0000       115000.000       10000.0000    
   6400.44141       65000.0000       115000.000       10000.0000    
   6400.44141       70000.0000       115000.000       10000.0000    
   6400.44141       75000.0000       115000.000       10000.0000    
   6400.44141       80000.0000       115000.000       10000.0000    
   6400.44141       85000.0000       115000.000       10000.0000    
   6400.44141       90000.0000       115000.000       10000.0000    
   6400.44141       95000.0000       115000.000       10000.0000    
   6400.44141       100000.000       115000.000       10000.0000    
   6400.44141       0.00000000       120000.000       10000.0000    
   6400.44141       5000.00000       120000.000       10000.0000    
   6400.44141       10000.0000       120000.000       10000.0000    
   6400.44141       15000.0000       120000.000       10000.0000    
   6400.44141       20000.0000       120000.000       10000.0000    
   6400.44141       25000.0000       120000.000       10000.0000    
   6400.44141       30000.0000       120000.000       10000.0000    
   6400.44141       35000.0000       120000.000       10000.0000    
   6400.44141       40000.0000       120000.000       10000.0000    
   6400.44141       45000.0000       120000.000       10000.0000    
   6400.44141       50000.0000       120000.000       10000.0000    
   6400.44141       55000.0000       120000.000       10000.0000    
   6400.44141       60000.0000       120000.000       10000.0000    
   6400.44141       65000.0000       120000.000       10000.0000    
   6400.44141       70000.0000       120000.000       10000.0000    
   6400.44141       75000.0000       120000.000       10000.0000    
   6400.44141       80000.0000       120000.000       10000.0000    
   6400.44141       85000.0000       120000.000       10000.0000    
   6400.44141       90000.0000       120000.000       10000.0000    
   6400.44141       95000.0000       120000.000       10000.0000    
   6400.44141       100000.000       120000.000       10000.0000    
   6447.03076       0.00000000       0.00000000       11000.0000    
   6447.03076       5000.00000       0.00000000       11000.0000    
   6447.03076       10000.0000       0.00000000       11000.0000    
   6447.03076       15000.0000       0.00000000       11000.0000    
   6447.03076       20000.0000       0.00000000       11000.0000    
   6447.03076       25000.0000       0.00000000       11000.0000    
   6447.03076       30000.0000       0.00000000       11000.0000    
   6447.03076       35000.0000       0.00000000       11000.0000    
   6447.03027       40000.0000       0.00000000       11000.0000    
   6447.03076       45000.0000       0.00000000       11000.0000    
   6447.03174       50000.0000       0.00000000       11000.0000    
   6447.03223       55000.0000       0.00000000       11000.0000    
   6447.03076       60000.0000       0.00000000       11000.0000    
   6447.03076       65000.0000       0.00000000       11000.0000    
   6447.03076       70000.0000       0.00000000       11000.0000    
   6447.03076       75000.0000       0.00000000       11000.0000    
   6447.03076       80000.0000       0.00000000       11000.0000    
   6447.03076       85000.0000       0.00000000       11000.0000    
   6447.03076       90000.0000       0.00000000       11000.0000    
   6447.03076       95000.0000       0.00000000       11000.0000    
   6447.03076       100000.000       0.00000000       11000.0000    
   6447.03076       0.00000000       5000.00000       11000.0000    
   6447.03076       5000.00000       5000.00000       11000.0000    
   6447.03076       10000.0000       5000.00000       11000.0000    
   6447.03076       15000.0000       5000.00000       11000.0000    
   6447.03076       20000.0000       5000.00000       11000.0000    
   6447.03076       25000.0000       5000.00000       11000.0000    
   6447.02490       30000.0000       5000.00000       11000.0000    
   6447.02588       35000.0000       5000.00000       11000.0000    
   6447.03223       40000.0000       5000.00000       11000.0000    
   6447.01660       45000.0000       5000.00000       11000.0000    
   6447.01758       50000.0000       5000.00000       11000.0000    
   6447.02295       55000.0000       5000.00000       11000.0000    
   6447.02930       60000.0000       5000.00000       11000.0000    
   6447.03076       65000.0000       5000.00000       11000.0000    
   6447.03076       70000.0000       5000.00000       11000.0000    
   6447.03076       75000.0000       5000.00000       11000.0000    
   6447.03076       80000.0000       5000.00000       11000.0000    
   6447.03076       85000.0000       5000.00000       11000.0000    
   6447.03076       90000.0000       5000.00000       11000.0000    
   6447.03076       95000.0000       5000.00000       11000.0000    
   6447.03076       100000.000       5000.00000       11000.0000    
   6447.03076       0.00000000       10000.0000       11000.0000    
   6447.03076       5000.00000       10000.0000       11000.0000    
